# .PCD v0.7 - Point Cloud Data file format
VERSION 0.7
FIELDS x y z intensity
SIZE 4 4 4 4
TYPE F F F F
COUNT 1 1 1 1
WIDTH 1417
HEIGHT 1
VIEWPOINT 0 0 0 1 0 0 0
POINTS 1417
DATA ascii
nan nan nan 0
nan nan nan 0
nan nan nan 0
-9.8634911 -7.6360135 3.5988286 3
-34.127232 -18.403725 9.5036898 28
-26.213776 -19.343031 6.6890512 35
-34.371929 -18.532072 6.5906014 32
-26.323132 -19.375154 4.3479981 36
-34.447441 -18.566343 4.1726999 28
-26.40024 -19.402893 2.6052926 28
-34.506969 -18.579096 2.2270722 32
-26.452335 -19.40704 1.0600975 31
-34.590096 -18.604748 0.37009409 30
-7.2691469 -5.7134533 -0.14378902 40
nan nan nan 0
-7.1756439 -5.6434641 -0.58778203 43
-16.214113 -8.9073105 -1.5716867 7
-7.2354569 -5.6826477 -1.0505146 39
-9.5763626 -5.415318 -1.5257791 94
-7.267211 -5.7009349 -1.6315142 46
-5.1066442 -3.0568619 -1.8144958 9
-3.2681317 -2.8569114 -1.0770233 10
-4.2310948 -2.5919347 -1.8611538 12
-2.9088669 -2.608778 -1.7499437 27
-2.5932148 -1.7236705 -1.92612 10
-2.7802556 -2.5204551 -1.9580754 18
-2.2407868 -1.5345023 -1.952661 19
-1.7447517 -1.7917508 -2.0022559 18
-1.6582875 -1.2246258 -1.9770774 17
-1.2558546 -1.4489192 -2.0082009 13
-1.2256249 -0.99253619 -1.9988718 15
0.35698217 -0.28293821 -0.45886362 6
nan nan nan 0
nan nan nan 0
nan nan nan 0
-26.162645 -19.21789 9.1173811 26
-34.373203 -18.368883 9.553051 26
-26.372322 -19.306356 6.7115507 35
-34.623196 -18.498968 6.6257243 32
-26.466715 -19.327309 4.3604083 35
-34.709148 -18.53842 4.1963749 30
-26.54842 -19.357946 2.6134384 32
-34.782806 -18.558283 2.2409084 32
-26.587198 -19.359594 1.0634248 37
-34.846439 -18.573376 0.37277862 29
-7.3226862 -5.7071276 -0.14415683 28
nan nan nan 0
-7.2268395 -5.6360092 -0.58983582 26
-16.203104 -8.8262453 -1.5674722 7
-7.2866812 -5.6748972 -1.0543081 39
-9.5719433 -5.3649244 -1.521993 97
-7.3152618 -5.6928921 -1.6370529 24
-5.1156683 -3.0343404 -1.8137137 9
-3.2880502 -2.8499529 -1.0796053 9
-4.2358961 -2.572428 -1.8594775 12
-2.9203026 -2.5967634 -1.7507572 29
-2.6014876 -1.712489 -1.9272021 10
-2.7834642 -2.5042388 -1.9548767 18
-2.2442029 -1.523149 -1.9513397 18
-1.7445078 -1.7778213 -1.9966822 18
-1.6715181 -1.220796 -1.9844778 19
-1.2642863 -1.4438876 -2.0113232 13
-1.2307264 -0.98652595 -2.0005271 13
nan nan nan 0
nan nan nan 0
nan nan nan 0
nan nan nan 0
-26.321964 -19.189009 9.1493444 1
-34.633438 -18.34762 9.6070719 30
-26.551622 -19.290525 6.7399516 35
-34.908676 -18.48979 6.6677799 36
-26.639362 -19.306305 4.3779697 33
-34.976727 -18.519644 4.2210627 31
-26.729954 -19.342798 2.6250572 32
-35.046864 -18.537355 2.2541559 32
-26.762945 -19.340185 1.0683408 35
-35.108673 -18.551224 0.37552479 27
-26.855587 -19.379414 -0.49309298 20
nan nan nan 0
-7.2607632 -5.618187 -0.59068918 4
-16.236025 -8.7682171 -1.5673554 7
-7.3552828 -5.6811013 -1.0605175 37
-9.5729799 -5.3198385 -1.5191953 104
-8.0155964 -6.1418166 -1.7751564 10
-5.1262231 -3.0139141 -1.8136032 9
-3.3079686 -2.84289 -1.0821875 10
-4.2427325 -2.553998 -1.8585927 13
-2.9464777 -2.5960476 -1.7588832 35
-2.5975356 -1.6958394 -1.9214 10
-2.7959046 -2.4945822 -1.9568565 18
-2.2495012 -1.5127599 -1.9512842 18
-1.7524011 -1.7703835 -1.9979937 19
-1.6739674 -1.2115128 -1.9829445 19
-1.2693141 -1.4369215 -2.0112705 14
-1.2308539 -0.97805345 -1.9971081 13
0.31951264 -0.30573115 -0.50350809 6
nan nan nan 0
nan nan nan 0
nan nan nan 0
-26.479429 -19.157858 9.1806421 31
-34.885303 -18.320312 9.6587496 33
-26.72311 -19.268045 6.7663755 33
-35.130924 -18.446146 6.6979566 31
-9.2542458 -6.9976716 1.5925926 1
-35.22691 -18.490133 4.2436662 31
-26.891277 -19.312334 2.6347289 31
-35.277893 -18.497709 2.2653103 31
-26.942982 -19.322645 1.073418 36
-35.35783 -18.52062 0.37813407 27
-27.027657 -19.355852 -0.49425057 29
-9.8924198 -5.4552112 -0.44443592 4
-7.3212776 -5.6187387 -0.59350866 5
-16.275398 -8.7134705 -1.5678544 1
-7.4117842 -5.6783767 -1.0651215 14
-9.5672026 -5.2714286 -1.5154235 107
-8.047102 -6.1182914 -1.7769841 11
-5.132411 -2.9912682 -1.8121624 9
-3.3278856 -2.8357224 -1.0847697 11
-4.2452712 -2.5334079 -1.8561265 11
-2.9803243 -2.6005082 -1.770662 35
-2.6093907 -1.6872014 -1.924782 11
-2.8027256 -2.4809577 -1.95573 18
-2.2566919 -1.5033151 -1.9524945 17
-1.7500305 -1.7557062 -1.9910483 18
-1.6799817 -1.204007 -1.9843892 19
-1.2695918 -1.4265919 -2.0064516 14
-1.2408746 -0.97443533 -2.0038378 15
0.30990586 -0.31033811 -0.51421636 6
0.34146523 -0.20001645 -0.47593254 9
nan nan nan 0
nan nan nan 0
-26.666649 -19.146538 9.22192 33
-35.13525 -18.290365 9.7098436 30
-26.904831 -19.2516 6.7952752 18
-35.395042 -18.422447 6.7359214 32
-9.2847166 -6.9668932 1.5938205 4
-35.490616 -18.465868 4.267838 29
-27.022001 -19.259676 2.6414773 31
-35.561474 -18.491322 2.2799263 31
-27.129396 -19.308352 1.0787359 35
-35.602753 -18.486235 0.38069901 28
-27.210907 -19.346155 -0.49569723 29
-9.9358988 -5.4304929 -0.44526178 61
-7.3634186 -5.6061625 -0.59496659 12
-12.95703 -6.9554305 -1.2591642 17
-12.576822 -9.2049198 -1.7372973 1
-9.5669365 -5.228281 -1.5126393 108
-8.0602884 -6.0820069 -1.7751199 11
-5.1401453 -2.9707243 -1.8113935 9
-3.349812 -2.8298395 -1.0878891 10
-4.2519636 -2.5149603 -1.8552434 11
-3.0042291 -2.5987911 -1.7778782 35
-2.6149669 -1.6761193 -1.9247236 11
-2.8132329 -2.4699109 -1.9566751 18
-2.2599888 -1.4919266 -1.9511744 18
-1.7558386 -1.7474757 -1.9909874 18
-1.6803541 -1.1942437 -1.9813696 19
-1.2743111 -1.4199568 -2.006402 14
-1.2407806 -0.96629441 -2.0004218 17
0.30597079 -0.31084004 -0.51777816 6
0.30498692 -0.21577086 -0.52092475 9
nan nan nan 0
nan nan nan 0
-26.825037 -19.121122 9.2545176 33
-35.388744 -18.268503 9.7626667 29
-9.2016783 -6.8767967 2.4353819 1
-35.651821 -18.401266 6.7730355 31
-9.3404131 -6.9560418 1.599251 9
-35.733612 -18.437393 4.2898893 31
-27.202721 -19.247967 2.6532614 29
-35.812965 -18.458862 2.2923431 31
-27.312679 -19.29789 1.0840211 35
-35.858051 -18.463507 0.38337258 27
-9.4198933 -6.9822774 -0.17906365 3
-9.8735256 -5.3545799 -0.44172221 182
-7.4210539 -5.6060824 -0.59764361 39
-12.915469 -6.8775105 -1.2529904 46
-12.601121 -9.1565199 -1.736177 7
-9.5674 -5.1833944 -1.5098473 97
-8.0641365 -6.0416632 -1.7716271 10
-5.1418557 -2.9459054 -1.8086241 9
-3.3772931 -2.8286991 -1.0926247 10
-4.258153 -2.4973669 -1.8543653 11
-3.030534 -2.5976071 -1.7860026 33
-2.6207972 -1.6644343 -1.9246625 11
-2.8139088 -2.4529846 -1.9524477 18
-2.262984 -1.4810556 -1.9498572 18
-1.7670681 -1.7423596 -1.9950522 18
-1.6863146 -1.1867036 -1.9828151 20
-1.280838 -1.4140604 -2.0079391 14
-1.250782 -0.96259713 -2.0071514 19
0.29778954 -0.31441352 -0.5266999 7
0.30124667 -0.21564947 -0.52466679 9
nan nan nan 0
nan nan nan 0
-27.012695 -19.107767 9.2958002 34
-35.654354 -18.243139 9.817872 29
-9.189249 -6.8169727 2.4267266 2
-35.962776 -18.397581 6.819613 27
-9.3953161 -6.9417248 1.6043705 10
-36.011154 -18.416681 4.3156333 30
-27.452858 -19.275366 2.671325 27
-36.080303 -18.432693 2.3057411 31
-27.513247 -19.283598 1.0897774 33
-36.127991 -18.43844 0.38619947 28
-9.4008274 -6.9171739 -0.17804468 33
-9.8908424 -5.3145099 -0.44142437 129
-7.4756289 -5.6014357 -0.60000718 48
-12.929434 -6.8218708 -1.2517047 95
-12.585747 -9.0777493 -1.7296988 5
-9.5743341 -5.1418829 -1.5080328 102
-3.8330874 -3.1154535 -0.91569024 1
-5.152102 -2.9253883 -1.8085169 9
-3.3936877 -2.8177173 -1.0941274 10
-4.267272 -2.4790668 -1.8542699 11
-3.0549533 -2.5949593 -1.7932137 31
-2.6205995 -1.6498035 -1.9211584 11
-2.820997 -2.4386976 -1.9513186 19
-2.2683918 -1.470078 -1.9498005 17
-1.7731347 -1.7336363 -1.9949887 18
-1.6888378 -1.1769714 -1.9812808 20
-1.2825882 -1.4048382 -2.0047102 14
-1.2509701 -0.95375478 -2.003732 19
0.28946888 -0.31777793 -0.53562009 6
0.29147467 -0.21823354 -0.53590804 10
nan nan nan 0
nan nan nan 0
-27.223831 -19.10203 9.3437748 33
-35.942993 -18.219448 9.8783903 32
-9.1979618 -6.7693748 2.4230289 4
-36.420933 -18.456753 6.8928742 22
-9.443243 -6.9197536 1.6082048 7
-36.287754 -18.385569 4.3408918 30
-27.655331 -19.261301 2.6845512 18
-38.529247 -19.478392 2.4554224 1
-27.687965 -19.257656 1.0946246 33
-36.435013 -18.421877 0.38941476 26
-9.4074774 -6.8673277 -0.1774528 27
-9.8846989 -5.2651634 -0.4402076 160
-9.309206 -6.7969089 -0.73222774 13
-9.7745161 -5.2033558 -0.960446 9
-9.379015 -6.8400402 -1.3092202 39
-9.5619888 -5.088717 -1.5032847 103
-3.8521085 -3.1049917 -0.91721737 34
-5.1671109 -2.9059303 -1.8097353 9
-3.4277754 -2.8196797 -1.1004683 9
-4.2844157 -2.4657762 -1.857343 12
-3.0875597 -2.5967293 -1.8040723 29
-2.632621 -1.6404164 -1.9245387 11
-2.8238389 -2.4224558 -1.9481237 19
-2.2696197 -1.4577329 -1.947216 17
-1.7777481 -1.7232769 -1.9935461 17
-1.6911182 -1.1676593 -1.979749 20
-1.2940862 -1.4018303 -2.0110111 13
-1.2609506 -0.94997513 -2.0104618 21
0.28980017 -0.31519234 -0.53382206 7
0.28321621 -0.22013392 -0.5452745 13
nan nan nan 0
nan nan nan 0
-27.388073 -19.070187 9.3770781 32
-36.193882 -18.183184 9.929493 27
-9.2418327 -6.7482409 2.4282246 4
-36.586906 -18.376734 6.912405 13
-9.2124548 -6.7122693 1.5682212 2
-36.541328 -18.349312 4.3637676 28
-9.504673 -6.8994732 0.96549714 2
-38.572353 -19.32897 2.4545927 6
-27.875284 -19.239086 1.0999521 32
-36.694313 -18.387815 0.3921302 26
-9.408556 -6.8165121 -0.17680314 19
-9.9074974 -5.2302279 -0.44020176 163
-9.2955675 -6.7367568 -0.72926271 24
-12.920784 -6.6989002 -1.2460978 1
-9.3842478 -6.7922325 -1.3065674 30
-9.5796871 -5.0527472 -1.5030994 99
-3.8444819 -3.0765851 -0.91341305 56
-5.1707168 -2.8821633 -1.8076341 9
-3.4436755 -2.8091998 -1.1019763 9
-4.2993941 -2.4513609 -1.8596255 13
-3.2684851 -2.6989591 -1.8852439 15
-2.6403284 -1.6296307 -1.9256266 11
-2.8303854 -2.408766 -1.9470001 18
-2.2805271 -1.4500428 -1.9509593 16
-1.7768373 -1.7098311 -1.9879792 18
-1.696995 -1.1600624 -1.9811953 20
-1.2973721 -1.3936725 -2.0093713 14
-1.2609172 -0.94146663 -2.0070453 20
0.28005552 -0.31954852 -0.5445289 7
0.27493909 -0.22197996 -0.55464089 16
nan nan nan 0
nan nan nan 0
-27.572432 -19.050875 9.417038 33
-36.455894 -18.150711 9.9835329 27
-9.3141737 -6.7459922 2.4403491 4
-36.730621 -18.284969 6.9278345 1
-9.27703 -6.7049632 1.5749568 2
-36.821918 -18.324587 4.3897815 27
-28.044006 -19.232632 2.7099657 6
-38.862854 -19.308838 2.469398 6
-28.073215 -19.226377 1.1056808 34
-36.960567 -18.355448 0.39491853 26
-9.4560623 -6.7994318 -0.177002 5
-9.9189482 -5.1897354 -0.43973246 114
-9.3273296 -6.7072115 -0.7296207 28
-10.095244 -5.2680354 -0.98603022 5
-3.8806167 -3.0785956 -0.59319538 41
-9.5718498 -5.0066247 -1.4993492 32
-3.8654585 -3.0673928 -0.91535127 52
-5.1867528 -2.8657179 -1.8095297 9
-3.4697165 -2.8054075 -1.1061687 7
-4.3036447 -2.4317343 -1.8579549 13
-3.2328937 -2.6559639 -1.8641499 20
-2.6417029 -1.6165379 -1.923275 11
-2.8368797 -2.3950605 -1.9458772 18
-2.2875187 -1.4404496 -1.9521717 15
-1.7842247 -1.7026772 -1.989296 18
-1.6953733 -1.149453 -1.9766891 19
-1.2923939 -1.3804491 -1.9997914 14
-1.2640281 -0.93486309 -2.0070126 21
0.274609 -0.32088375 -0.54987627 7
0.26818728 -0.2231684 -0.56213248 13
nan nan nan 0
nan nan nan 0
-27.737644 -19.024788 9.4516401 33
-36.721527 -18.126358 10.039301 27
-9.354846 -6.7247205 2.4450376 5
-37.1063 -18.312826 6.9866934 1
-9.3136616 -6.6812234 1.577461 2
-37.104073 -18.306902 4.4162874 28
-28.219784 -19.211346 2.7211773 1
-39.231186 -19.315849 2.4888616 10
-28.255552 -19.209309 1.110898 33
-37.253128 -18.342197 0.3979823 26
-9.4859905 -6.7679105 -0.17686272 9
-9.9270964 -5.1500049 -0.43918127 4
-3.7331662 -2.9608369 -0.3223694 3
-10.117143 -5.2342396 -0.9862566 3
-3.8928742 -3.0646148 -0.59335572 51
nan nan nan 0
-3.8797207 -3.054821 -0.91606516 47
-5.1923714 -2.8429658 -1.8080951 10
-3.5238128 -2.8210523 -1.1178818 7
-4.3116803 -2.4150281 -1.8578707 11
-3.3352652 -2.7038169 -1.9078778 12
-2.6513422 -1.6066542 -1.9255112 11
-2.8429058 -2.381963 -1.9447589 18
-2.2903266 -1.4295214 -1.9508567 13
-1.7884171 -1.6927345 -1.9878579 18
-1.6975491 -1.1401366 -1.9751586 18
-1.3004038 -1.3755393 -2.002918 15
-1.2723005 -0.93020266 -2.0120516 22
0.27065167 -0.32128695 -0.55343777 6
0.25535536 -0.22695576 -0.57712287 14
nan nan nan 0
nan nan nan 0
-27.948492 -19.020754 9.5002556 34
-37.021236 -18.10854 10.103317 32
-9.3721228 -6.6852674 2.4437978 5
-37.361237 -18.272005 7.0226288 2
-9.355547 -6.6582766 1.5806264 4
-37.385227 -18.278728 4.4423075 29
-9.8208265 -6.9551129 0.98928452 6
-39.516743 -19.280642 2.5031493 13
-9.8866606 -6.9864192 0.40612608 2
-37.542439 -18.317289 0.40101206 27
-9.5367155 -6.7499809 -0.17708585 10
nan nan nan 0
-3.7246947 -2.932862 -0.32090417 10
-16.395103 -8.1794081 -1.5547503 9
-3.8765192 -3.0306928 -0.58977443 36
-10.351793 -5.2894597 -1.607193 9
-3.822813 -2.9932654 -0.90241939 23
-5.1979027 -2.8202095 -1.8066615 9
-3.5463758 -2.8134446 -1.1209943 6
-4.3183532 -2.3955197 -1.8569876 11
-3.3543997 -2.6960044 -1.912344 13
-2.6529055 -1.5929621 -1.9231577 11
-2.8554125 -2.3713567 -1.946738 17
-2.2916353 -1.4166262 -1.9482712 12
-1.7943103 -1.6839368 -1.9877962 17
-1.7071848 -1.1337534 -1.9795808 19
-1.3051925 -1.3684473 -2.0028677 15
-1.2740195 -0.92210072 -2.010325 22
0.26657435 -0.32150093 -0.55699801 6
0.26358363 -0.22110882 -0.56586552 15
nan nan nan 0
nan nan nan 0
-9.744278 -6.8980556 3.4596455 1
-37.304676 -18.0728 10.162089 26
-9.3760605 -6.6345968 2.4391029 3
-37.630669 -18.228201 7.060648 3
-9.4234495 -6.6496239 1.5876995 5
-37.67881 -18.246367 4.469409 29
-9.568696 -6.7350488 0.96356463 5
-39.751774 -19.210918 2.5141125 6
-9.8502836 -6.9096537 0.40406227 10
-37.83297 -18.282774 0.40405464 24
-9.8755903 -6.9168653 -0.18224157 7
-27.60849 -13.425194 -1.1640724 1
-3.714499 -2.9028423 -0.31928435 16
-16.378496 -8.0982761 -1.5503664 10
-3.8605089 -2.9961188 -0.58618957 37
-10.375589 -5.2509131 -1.6076407 7
-3.7753434 -2.9396756 -0.89083266 26
-5.208199 -2.798461 -1.8065536 9
-6.0633864 -4.4295712 -1.7783763 1
-4.3202391 -2.3748667 -1.8545284 10
-3.364253 -2.6810172 -1.9122409 13
-2.6607366 -1.5814866 -1.9242443 11
-2.8579535 -2.3550937 -1.9435463 18
-2.2946026 -1.40517 -1.9469545 12
-1.8022087 -1.6758242 -1.9891077 17
-1.7074728 -1.1235756 -1.9765624 19
-1.3085847 -1.3599168 -2.0012269 14
-1.2822633 -0.91737008 -2.0153646 22
0.26836488 -0.31789026 -0.55341387 6
0.2597912 -0.22077151 -0.56960696 19
nan nan nan 0
nan nan nan 0
-9.7380209 -6.8415031 3.4499118 10
-37.585217 -18.041929 10.220833 24
-9.4012108 -6.6004591 2.4398401 4
-37.91497 -18.197823 7.1019192 3
-9.4486761 -6.6153646 1.5882665 3
-37.962742 -18.215685 4.4956956 29
-9.5168447 -6.6501617 0.95677453 5
-40.098694 -19.200994 2.532187 6
-9.8554583 -6.8603787 0.4035942 13
-38.129623 -18.25741 0.4071613 23
-9.8912706 -6.8743138 -0.18184523 12
-27.777317 -13.383461 -1.1685935 20
-3.7225075 -2.8858988 -0.31902781 28
-16.422453 -8.0458946 -1.5515013 11
-3.8563194 -2.9705923 -0.58421284 39
-10.391603 -5.2110567 -1.6071247 7
-3.7565665 -2.905174 -0.88498741 36
-5.2244859 -2.7807615 -1.8084466 10
-3.8489966 -2.9662294 -1.1948507 32
-4.3306499 -2.3582203 -1.8552325 10
-3.359911 -2.657856 -1.905753 15
-2.664217 -1.5687163 -1.9230392 12
-2.864243 -2.3413191 -1.9424256 19
-2.2975276 -1.3937104 -1.9456379 11
-1.8027992 -1.6635545 -1.9849192 18
-1.7095494 -1.1142362 -1.9750329 19
-1.3197722 -1.3570374 -2.0075314 15
-1.2820895 -0.90884542 -2.0119491 23
0.26579991 -0.31719327 -0.55518842 5
0.24993867 -0.22307211 -0.58084732 23
nan nan nan 0
nan nan nan 0
-9.7395868 -6.7903185 3.442838 11
-37.888031 -18.019585 10.285445 23
-9.4303637 -6.5688834 2.441566 1
-38.161526 -18.147959 7.1362176 2
-9.4612837 -6.572958 1.5868838 3
-38.298748 -18.207403 4.5279989 34
-9.7601042 -6.7557974 0.9775427 5
-40.43021 -19.181499 2.5492852 6
-9.8856468 -6.8273559 0.40408444 20
-38.394833 -18.215433 0.40993866 20
-9.9067841 -6.831738 -0.18145068 33
-27.986973 -13.359667 -1.1747835 23
-3.730453 -2.8689358 -0.31877196 34
-16.470772 -7.9954042 -1.5530462 11
-3.8541017 -2.9464726 -0.58250403 39
-10.425469 -5.1794882 -1.6092087 9
-3.7459111 -2.876159 -0.88078326 40
-5.2341557 -2.7599571 -1.8083453 9
-3.8367066 -2.9357131 -1.1888397 34
-4.3345399 -2.3385596 -1.8535655 10
-3.376996 -2.6485965 -1.9093075 16
-2.6656275 -1.5550219 -1.9206868 13
-2.8685663 -2.3262966 -1.9402702 19
-2.3043382 -1.384024 -1.9468524 11
-1.8155975 -1.6592469 -1.9903617 19
-1.7152567 -1.1065373 -1.9764808 19
-1.3212626 -1.3477688 -2.0043051 14
-1.2869341 -0.90256429 -2.013607 22
0.27054235 -0.31167826 -0.54803222 4
nan nan nan 0
nan nan nan 0
nan nan nan 0
-9.7490339 -6.7444177 3.4384251 10
-38.160267 -17.981068 10.341846 29
-9.523386 -6.5781627 2.4586434 3
-93.132462 -43.383453 17.198866 1
-9.4570122 -6.519865 1.5829005 2
-38.578743 -18.170929 4.5537682 24
-9.8718653 -6.7753472 0.98600131 6
-40.688477 -19.134737 2.562006 16
-9.9157343 -6.7942047 0.40457362 16
-38.72607 -18.202179 0.41340747 23
-9.9272699 -6.7950273 -0.18117808 11
-28.117388 -13.297992 -1.1777267 20
-3.7362285 -2.8506124 -0.31836617 36
-16.466885 -7.9207282 -1.5498964 10
-3.855967 -2.9250712 -0.58132988 41
-10.438078 -5.1403894 -1.6083798 9
-3.7600856 -2.8631265 -0.88149804 45
-5.2388911 -2.7381592 -1.8069202 10
-3.8366232 -2.9131784 -1.1860498 37
-4.3448305 -2.3218484 -1.8542709 10
-3.3798685 -2.6312082 -1.9064773 17
-2.6727908 -1.5446664 -1.9217807 13
-2.8805001 -2.3161733 -1.9422554 17
-2.3091509 -1.3734258 -1.946802 11
-1.8158188 -1.6474116 -1.986177 19
-1.7134044 -1.0959815 -1.971977 19
-1.3257203 -1.3409626 -2.0042584 14
-1.2831683 -0.89292186 -2.0068121 21
0.27238724 -0.30811134 -0.54444861 4
nan nan nan 0
nan nan nan 0
nan nan nan 0
-9.7957191 -6.7249994 3.4466486 7
-38.456085 -17.959867 10.405259 27
-9.882185 -6.7583117 2.5396013 9
-38.777405 -18.108124 7.2277641 2
-9.8260345 -6.7063541 1.6370561 3
-38.864834 -18.143776 4.5805535 24
-9.9090099 -6.7493906 0.98760509 4
-41.036465 -19.118645 2.580092 16
-9.9656553 -6.7761526 0.40585077 10
-39.018124 -18.177153 0.416466 23
-9.9783955 -6.7750807 -0.18139708 6
-28.172689 -13.207425 -1.17773 18
-3.7456565 -2.835732 -0.31826743 10
-16.549732 -7.8894882 -1.5547262 10
-3.8425174 -2.8952098 -0.57829547 39
-10.451441 -5.0993118 -1.6075432 7
-3.7674689 -2.8468704 -0.88098907 50
-5.2418251 -2.7143235 -1.8048257 9
-3.8338685 -2.8901753 -1.1827297 41
-4.343854 -2.3011041 -1.8510286 10
-3.392961 -2.6193364 -1.9082068 16
-2.6781614 -1.5327801 -1.9217244 12
-2.8881607 -2.3041892 -1.9421751 18
-2.3058059 -1.3598415 -1.9416939 11
-1.8215532 -1.6385182 -1.986117 19
-1.7153766 -1.0866402 -1.9704487 19
-1.3352604 -1.3369139 -2.0089746 18
-1.2879622 -0.88662553 -2.0084708 21
0.28164527 -0.29988798 -0.53193521 4
nan nan nan 0
nan nan nan 0
nan nan nan 0
-9.8557749 -6.7112241 3.4588795 3
-38.773018 -17.938019 10.473401 23
-9.8373241 -6.6779118 2.5235019 3
-93.08197 -42.586292 17.139156 1
-9.8514767 -6.6706586 1.6376256 2
-39.181503 -18.120281 4.6105132 23
-9.8945217 -6.6882329 0.98432976 2
-41.346207 -19.08284 2.5957973 16
-29.671846 -19.087177 1.1518435 30
-39.325001 -18.148552 0.4196797 20
-29.728636 -19.104439 -0.51505846 1
nan nan nan 0
-3.7491827 -2.8160591 -0.31771252 10
-16.585344 -7.8291674 -1.555037 10
-3.848382 -2.876545 -0.57765675 40
-10.453353 -5.0531106 -1.6050845 9
-3.7757821 -2.8290205 -0.88047045 22
-5.255662 -2.6954308 -1.8060566 9
-3.8465004 -2.874697 -1.1831557 40
-4.3565845 -2.2844257 -1.8525214 10
-3.4001079 -2.6036916 -1.9071988 12
-2.6794281 -1.5190787 -1.9193738 11
-2.8946545 -2.2897029 -1.9410521 17
-2.3166907 -1.3513113 -1.9454373 11
-1.8237302 -1.6273707 -1.9833061 19
-1.7175007 -1.0768713 -1.9689186 19
-1.3447971 -1.3328153 -2.0136907 19
-1.289506 -0.87850124 -2.0067458 22
0.26877627 -0.30575511 -0.54621226 6
nan nan nan 0
nan nan nan 0
nan nan nan 0
-29.324057 -18.881783 9.8040667 32
-39.073456 -17.898228 10.536298 22
-29.598433 -18.992353 7.2307973 74
-93.158691 -42.20607 17.126423 1
-29.772617 -19.055017 4.7131343 3
-39.497112 -18.08572 4.6399865 27
-29.803415 -19.047071 2.824353 18
-41.70734 -19.059158 2.6144867 18
-29.8804 -19.069323 1.1579156 30
-39.630756 -18.108938 0.42288172 23
-29.927937 -19.073145 -0.51651108 28
nan nan nan 0
-3.7743096 -2.8087835 -0.31865799 9
-16.662603 -7.7910504 -1.5592417 1
-3.8504467 -2.8544486 -0.57648051 43
-10.46727 -5.0100574 -1.6042418 9
-3.7730575 -2.8054326 -0.8779096 43
-5.2566886 -2.6695595 -1.8032943 9
-3.8606539 -2.8612556 -1.1841239 41
-4.3666959 -2.2676153 -1.8532287 10
-3.4096222 -2.5885372 -1.9070991 12
-2.6910768 -1.5092458 -1.9227579 11
-2.9006941 -2.2758331 -1.9399338 17
-2.3233657 -1.341531 -1.9466532 11
-1.8226078 -1.6135602 -1.9777412 18
-1.7249336 -1.0699146 -1.9718564 19
-1.352931 -1.3272709 -2.0168164 19
-1.2976441 -0.87361175 -2.0117862 22
-1.0538213 -1.1468521 -2.1464841 1
nan nan nan 0
nan nan nan 0
nan nan nan 0
-29.502266 -18.846426 9.841383 32
-39.357693 -17.857567 10.595642 16
-29.812336 -18.977833 7.2666645 67
-93.152252 -41.809204 17.100054 1
-29.904263 -18.988661 4.7239041 80
-39.800762 -18.05213 4.6683826 23
-30.015959 -19.030685 2.8385525 18
-42.001686 -19.012167 2.6292157 16
-30.059441 -19.031855 1.1628661 31
-39.947315 -18.080513 0.42619681 23
-30.13686 -19.053909 -0.51821125 29
nan nan nan 0
-3.7968311 -2.8008447 -0.31945813 9
-15.245422 -7.0903034 -1.4295959 6
-3.8498015 -2.8318739 -0.57504398 27
-10.47562 -4.9669213 -1.602761 9
-3.7765231 -2.7857795 -0.87657857 44
-5.2703824 -2.6505835 -1.8045266 9
-3.8789277 -2.8503137 -1.1861649 50
-4.3658915 -2.2459996 -1.8499846 10
-3.4206123 -2.5752962 -1.9079173 12
-2.6983616 -1.4981798 -1.9238503 12
-2.9086154 -2.2631476 -1.9398508 17
-2.3181303 -1.3265953 -1.940279 11
-1.8317666 -1.6068522 -1.9804337 19
-1.7286532 -1.0613414 -1.9718174 19
-1.3673618 -1.326156 -2.0262976 21
-1.2972865 -0.8651036 -2.008373 22
nan nan nan 0
nan nan nan 0
nan nan nan 0
nan nan nan 0
-29.709282 -18.827784 9.8880253 31
-39.666588 -17.825918 10.661447 10
-30.005646 -18.94919 7.2975802 60
-93.198318 -41.436771 17.083517 1
-30.120285 -18.973537 4.7476768 80
-40.093292 -18.01162 4.6954732 20
-30.237251 -19.018257 2.8535376 18
-42.362457 -18.992527 2.6480179 16
-30.276936 -19.016876 1.169264 32
-40.287041 -18.060165 0.42975453 23
-30.352419 -19.037365 -0.52001584 29
nan nan nan 0
-3.8172231 -2.7914808 -0.32010785 10
-15.292889 -7.0444956 -1.4313779 6
-3.8596582 -2.8158219 -0.5749408 45
-10.483807 -4.9237885 -1.6012816 9
-3.7799063 -2.7661359 -0.87524849 48
-5.2707601 -2.6257689 -1.8017712 9
-3.897181 -2.8392787 -1.1882064 47
-4.3758755 -2.2291417 -1.8506932 10
-3.4275918 -2.5595756 -1.9069109 12
-2.6974471 -1.4835745 -1.9203537 12
-2.9126151 -2.2480514 -1.9376988 19
-2.328691 -1.3184911 -1.9440259 12
-1.8320341 -1.5946078 -1.9762486 18
-1.7304928 -1.051973 -1.9702904 19
-1.3703392 -1.3178105 -2.0246611 22
-1.305393 -0.86015189 -2.0134137 22
-1.0677099 -1.1381105 -2.1535449 11
-0.38876665 -0.47120002 -1.3568645 23
nan nan nan 0
nan nan nan 0
-29.91654 -18.807926 9.9346704 31
-40.011383 -17.807888 10.736646 6
-30.201218 -18.920708 7.3289928 41
-93.224869 -41.056637 17.063681 1
-30.332344 -18.954556 4.7708015 77
-40.465778 -18.004116 4.7317271 24
-30.426907 -18.985069 2.8655884 18
-42.727158 -18.981186 2.6672106 16
-30.492559 -18.999311 1.1755843 32
-40.558369 -18.0077 0.432596 10
-30.567051 -19.026308 -0.52188838 29
nan nan nan 0
-3.8632026 -2.7975481 -0.32256156 4
-15.349373 -7.0024171 -1.4339769 7
-3.8588324 -2.7932894 -0.57350606 48
-10.493251 -4.883605 -1.6001377 7
-3.7895336 -2.7503395 -0.87514764 48
-5.2860718 -2.6087184 -1.8036743 9
-3.8945384 -2.8154833 -1.1848853 29
-4.3770895 -2.208492 -1.848241 11
-3.4380445 -2.5469856 -1.9077348 12
-2.7043917 -1.4730716 -1.9214498 11
-2.9223826 -2.2365091 -1.9386516 18
-2.3293028 -1.3061271 -1.9414477 12
-1.842644 -1.5893837 -1.9803199 18
-1.72841 -1.0414815 -1.965789 19
-1.3746972 -1.3108428 -2.0246155 22
-1.3082337 -0.85340154 -2.0133841 22
nan nan nan 0
-0.40104723 -0.471834 -1.3699702 21
nan nan nan 0
nan nan nan 0
-30.126926 -18.796013 9.9832802 32
-40.340057 -17.789062 10.808294 6
-30.416708 -18.910515 7.3658237 40
-93.238289 -40.691296 17.042936 1
-30.534975 -18.935942 4.7929187 64
-40.655312 -17.923477 4.7472715 2
-30.634727 -18.96916 2.8795652 18
-42.923737 -18.885681 2.6759076 4
-30.709408 -18.988544 1.1820333 32
-40.787685 -17.943964 0.43499747 1
-30.770283 -18.9995 -0.52347398 29
nan nan nan 0
nan nan nan 0
-15.409113 -6.964818 -1.4369975 7
-3.8659401 -2.7767289 -0.57314301 50
-10.519337 -4.8483067 -1.6012579 9
-3.7965159 -2.73403 -0.87464297 41
-5.2929249 -2.5867522 -1.8029149 10
-3.8620148 -2.7749112 -1.1740627 33
-4.3865662 -2.1924729 -1.848955 11
-3.43894 -2.5276074 -1.9039921 12
-2.703372 -1.4584868 -1.9179541 11
-2.9278319 -2.2232084 -1.9375395 19
-2.3356056 -1.2968104 -1.9426676 12
-1.8446114 -1.5782242 -1.9775108 18
-1.7320304 -1.0328963 -1.9657511 19
-1.3825507 -1.3055123 -2.0277438 23
-1.3060868 -0.84419399 -2.008281 22
-0.98168623 -1.0678797 -2.0409527 1
-0.41342676 -0.47219202 -1.3830745 23
nan nan nan 0
nan nan nan 0
-30.336721 -18.774969 10.030596 32
-7.4468193 -3.5165913 2.1466682 5
-30.627375 -18.888556 7.4007096 39
-7.5539513 -3.5629094 1.4987714 26
-30.736876 -18.908133 4.8144226 54
-7.4871368 -3.533504 0.94052541 26
-30.85891 -18.95425 2.8947539 18
-7.5942316 -3.5756938 0.50933623 28
-30.909563 -18.951368 1.1876693 33
-7.5416594 -3.5495894 0.086833216 15
-30.990871 -18.98177 -0.52534211 30
-7.549799 -3.5477681 -0.33223885 17
-19.865404 -12.32056 -1.4433662 1
-7.557272 -3.5457354 -0.73594117 22
-3.8756042 -2.7606211 -0.5730418 51
-10.517946 -4.80123 -1.5984856 9
-3.8213286 -2.7262321 -0.87740409 41
-5.29526 -2.5628903 -1.8008268 9
-3.838613 -2.7379999 -1.1653771 37
-4.3923817 -2.1727817 -1.8480809 10
-3.4517298 -2.5154335 -1.9057248 12
-2.7145915 -1.4490614 -1.921343 12
-2.935955 -2.2097886 -1.9374543 18
-2.338346 -1.2847409 -1.9413531 12
-1.8590362 -1.5746318 -1.9843303 20
-1.7395151 -1.0253943 -1.968688 19
-1.3887441 -1.2991393 -2.0292845 23
-1.3040459 -0.8346566 -2.0031762 23
-1.0795288 -1.1192505 -2.1534212 18
-0.41822243 -0.46920359 -1.3868054 18
nan nan nan 0
nan nan nan 0
-30.564489 -18.755875 10.082613 32
-7.4439955 -3.479799 2.1426926 23
-30.862598 -18.872389 7.4405899 37
-7.4534502 -3.48422 1.4783792 35
-30.974203 -18.89263 4.8408413 44
-7.4748564 -3.4925718 0.93778002 35
-31.099529 -18.940088 2.9111562 18
-7.5038662 -3.5012312 0.50314897 37
-31.138794 -18.937679 1.1944801 34
-7.5131779 -3.5016265 0.086534947 24
-31.212875 -18.955877 -0.5271374 31
-7.5552301 -3.5158689 -0.33183259 35
-19.910418 -12.244976 -1.4428948 1
-7.5627108 -3.5138359 -0.73520046 31
-3.8856907 -2.7436721 -0.57293618 54
-10.528614 -4.7570734 -1.5973287 10
-3.8393049 -2.7153189 -0.87894207 46
-5.297945 -2.537991 -1.7987351 9
-3.8355374 -2.7145402 -1.1620606 39
-4.3955574 -2.1530573 -1.8464214 11
-3.4549189 -2.4965224 -1.9028912 11
-2.7178261 -1.4355794 -1.9201401 12
-2.943646 -2.19698 -1.9373738 18
-2.3388231 -1.2723848 -1.9387765 11
-1.8594186 -1.5619138 -1.9801441 21
-1.7356365 -1.0137436 -1.9626976 19
-1.3868802 -1.287377 -2.0228825 22
-1.3137848 -0.83029592 -2.0099084 27
-1.0580213 -1.0974687 -2.1230211 18
-0.42293024 -0.46638879 -1.3905374 20
nan nan nan 0
nan nan nan 0
-30.76026 -18.723642 10.125269 31
-7.4157658 -3.4341519 2.1322508 28
-31.073746 -18.847826 7.475481 38
-7.4314604 -3.4411776 1.4723468 30
-31.178667 -18.863571 4.8626752 39
-7.4778271 -3.459955 0.93685961 31
-31.309265 -18.913553 2.9249792 18
-7.4976244 -3.4646528 0.50215191 35
-31.361851 -18.918818 1.2010523 32
-7.5138226 -3.4679258 0.086541697 28
-31.421036 -18.927883 -0.52878737 31
-7.5374966 -3.4743211 -0.33050424 32
-19.953033 -12.172839 -1.4424485 7
-7.551939 -3.4752107 -0.73303437 28
-3.8952394 -2.7274952 -0.57283616 52
-10.536001 -4.7139158 -1.5958579 10
-3.8572598 -2.7043135 -0.88048041 49
-5.3045402 -2.5160072 -1.797978 9
-3.8365645 -2.6936104 -1.1598171 39
-4.4052329 -2.1360586 -1.8471332 11
-3.467617 -2.4842649 -1.9046251 12
-2.722816 -1.4235365 -1.9200879 13
-2.9395356 -2.1771982 -1.9310869 18
-2.34724 -1.2632921 -1.94126 11
-1.8648546 -1.5528687 -1.9800873 22
-1.7391598 -1.0051333 -1.9626607 19
-1.3963294 -1.2829618 -2.0275996 23
-1.3098233 -0.82044363 -2.0031157 26
-1.0813082 -1.1029902 -2.1461964 20
-0.43841755 -0.46776256 -1.4073905 21
nan nan nan 0
nan nan nan 0
-30.98525 -18.707405 10.177256 29
-7.4119968 -3.3990149 2.1282656 30
-31.293556 -18.826984 7.5123572 37
-7.4320383 -3.4078081 1.4704189 32
-31.394005 -18.839579 4.886137 39
-7.4531269 -3.4158978 0.93279469 32
-31.534248 -18.8946 2.9401765 16
-7.484314 -3.4252865 0.50073141 36
-31.583012 -18.897362 1.2075465 31
-7.5027895 -3.4294698 0.086426161 34
-31.653133 -18.912535 -0.53082514 31
-7.5403433 -3.4415557 -0.3300086 34
-19.963064 -12.081692 -1.4397534 6
-7.5363951 -3.4347966 -0.73046237 32
-3.9025836 -2.7100337 -0.57247061 49
-10.543222 -4.670764 -1.5943886 9
-3.8730636 -2.6919734 -0.8816095 53
-5.3065982 -2.4921751 -1.7958928 9
-3.8501577 -2.6800876 -1.160791 43
-4.4104624 -2.1172194 -1.8462652 10
-3.4722447 -2.4672465 -1.9027097 11
-2.7257049 -1.4106425 -1.918889 15
-2.9530029 -2.16783 -1.9341109 19
-2.3436298 -1.2493209 -1.9361546 12
-1.8666639 -1.5416819 -1.9772799 23
-1.7482507 -0.99874192 -1.9670887 18
-1.3991354 -1.2745497 -2.0259647 22
-1.3109605 -0.81264889 -2.0013952 26
-1.0911497 -1.100268 -2.1532993 16
-0.4385004 -0.46306613 -1.4054991 20
nan nan nan 0
nan nan nan 0
-31.19595 -18.681305 10.224583 26
-7.4103317 -3.3648729 2.124866 33
-31.517845 -18.807301 7.5502276 39
-7.4279222 -3.372597 1.4676683 32
-31.643848 -18.834248 4.9148078 39
-7.4466095 -3.3796332 0.93082333 32
-31.753033 -18.870548 2.9547884 16
-7.4662132 -3.384155 0.49902779 36
-31.821701 -18.884619 1.2146885 32
-7.496213 -3.3930342 0.086357281 35
-31.868214 -18.885771 -0.5325768 30
-7.5199509 -3.3993204 -0.32859161 35
-19.940317 -11.971872 -1.4348121 6
-7.5345001 -3.4002056 -0.72911483 31
-3.909863 -2.6925538 -0.57210571 49
-9.1370859 -4.0492039 -1.3931161 10
-3.8973765 -2.6844947 -0.88437581 37
-5.3197246 -2.4729025 -1.7971311 9
-3.861598 -2.6652799 -1.1612295 44
-4.4178214 -2.0992615 -1.8461882 10
-3.4788179 -2.4513955 -1.9017079 11
-2.7244225 -1.3960916 -1.9153961 15
-2.95858 -2.1538184 -1.9329975 19
-2.3499751 -1.2393849 -1.937374 13
-1.8738301 -1.5336664 -1.9785991 23
-1.7461164 -0.98787564 -1.9625878 18
-1.4002447 -1.2651523 -2.0227425 22
-1.3137846 -0.80552346 -2.0013657 23
-1.0859566 -1.0885473 -2.142545 19
-0.43701982 -0.45778313 -1.4017335 21
nan nan nan 0
nan nan nan 0
-31.433941 -18.669672 10.280572 23
-7.4017754 -3.3280303 2.1197035 33
-31.733902 -18.781368 7.5861168 38
-7.4145279 -3.3337305 1.4632733 32
-31.861828 -18.808817 4.9386005 36
-7.4445448 -3.3453343 0.92937434 32
-31.976357 -18.847683 2.9697948 16
-7.46873 -3.35167 0.49858826 36
-32.036869 -18.856737 1.220946 31
-7.4917984 -3.3576295 0.086311057 35
-32.098675 -18.866453 -0.53457361 31
-7.5063095 -3.3600934 -0.32745337 33
-19.962496 -11.88845 -1.4330257 6
-7.5163069 -3.359108 -0.72634262 32
-3.9213886 -2.6775305 -0.57227367 51
-9.1672421 -4.0212369 -1.395239 16
-3.9281116 -2.6805608 -0.88836962 56
-5.317143 -2.4472635 -1.7937189 9
-3.879344 -2.6540713 -1.1632762 41
-4.427319 -2.0821626 -1.8469019 11
-3.4853315 -2.435528 -1.9007063 12
-2.731339 -1.3848454 -1.9164925 15
-2.9660752 -2.1409311 -1.9329189 19
-2.3542824 -1.2286278 -1.9373288 13
-1.877363 -1.5235223 -1.9771678 22
-1.7532918 -0.98069054 -1.9655284 18
-1.409647 -1.2606392 -2.0274601 23
-1.3183024 -0.79904944 -2.003027 22
-1.089745 -1.0822108 -2.1425054 16
-0.44634509 -0.45661956 -1.4110886 19
nan nan nan 0
nan nan nan 0
-31.657635 -18.648191 10.331901 18
-7.3930645 -3.2912889 2.1145389 32
-31.969296 -18.765131 7.6264715 36
-7.4123964 -3.2996171 1.4609301 32
-32.092945 -18.789482 4.9643483 35
-7.4285069 -3.3055043 0.92635173 31
-32.193417 -18.819778 2.984215 16
-7.4595461 -3.3145392 0.49744391 36
-32.254402 -18.828815 1.2272861 29
-7.4849186 -3.3213623 0.08623901 35
-32.316357 -18.838327 -0.53635597 31
-7.494812 -3.3219357 -0.32640913 34
-19.958328 -11.790201 -1.4294436 6
-7.518734 -3.3265436 -0.72540569 32
-3.9350271 -2.6636889 -0.57270813 44
nan nan nan 0
-3.9481583 -2.6703467 -0.89031762 41
-5.3301253 -2.4279227 -1.7949586 9
-3.8991909 -2.64398 -1.1658592 40
-4.4323506 -2.0632696 -1.846036 11
-3.4938068 -2.4207995 -1.9006175 11
-2.7382193 -1.3735681 -1.9175892 15
-2.9794517 -2.1314096 -1.9359438 18
-2.3565435 -1.2170706 -1.9360194 12
-1.8844731 -1.5154569 -1.9784876 21
-1.7548258 -0.9712944 -1.9640046 18
-1.4106946 -1.2512285 -2.0242386 22
-1.3193581 -0.79124296 -2.0013072 22
-1.0844517 -1.070557 -2.1317518 15
-0.44948065 -0.45307344 -1.4129466 16
nan nan nan 0
nan nan nan 0
-31.887833 -18.628956 10.385231 16
-7.3841944 -3.2546492 2.1093729 33
-32.18367 -18.735353 7.66187 36
-7.4009647 -3.2618966 1.4569424 32
-32.328629 -18.771206 4.9907503 36
-7.4238348 -3.2704427 0.92463756 32
-32.421535 -18.796732 2.9996185 16
-7.4571571 -3.2802913 0.49672011 37
-32.498241 -18.814377 1.2345982 29
-7.4778862 -3.2851839 0.086165361 36
-32.556007 -18.821215 -0.53848875 30
-7.4854698 -3.2848241 -0.32545877 34
-19.945034 -11.687216 -1.4252663 7
-7.5140886 -3.2912383 -0.72385895 33
-3.9551196 -2.6534512 -0.57394105 37
-7.6837463 -3.3518047 -1.1822349 33
-3.9724851 -2.6624498 -0.89308381 31
-5.338563 -2.4067514 -1.7948703 9
-3.9211488 -2.6349831 -1.1689781 32
-4.437314 -2.0443671 -1.8451709 11
-3.4981804 -2.4037466 -1.898705 12
-2.7471328 -1.363065 -1.9198333 14
-2.9829099 -2.1162024 -1.9337976 17
-2.3607726 -1.2062907 -1.9359751 11
-1.8806846 -1.5011427 -1.9715569 18
-1.7600772 -0.96333522 -1.9654573 17
-1.4133756 -1.2427891 -2.0226049 22
-1.3186605 -0.78278911 -1.9978975 23
-1.0957425 -1.0686191 -2.1406412 14
-0.44795299 -0.44778451 -1.4091812 13
nan nan nan 0
nan nan nan 0
-32.126686 -18.613083 10.441231 20
-7.3796892 -3.2199006 2.1053801 30
-32.415318 -18.713942 7.7012382 36
-7.3985443 -3.227927 1.4545962 32
-32.553787 -18.745428 5.0155272 37
-7.4213314 -3.2363689 0.92318398 32
-32.673779 -18.785751 3.0171838 16
-7.440136 -3.2420242 0.49514428 36
-32.733658 -18.793568 1.2415898 30
-7.4707022 -3.2490952 0.086090133 36
-32.801384 -18.8134 -0.54079354 29
-7.4899139 -3.2533202 -0.32506284 35
-19.998768 -11.62228 -1.4257394 6
-7.5000257 -3.2523539 -0.7214995 33
-3.9882102 -2.6503925 -0.57676971 58
-7.6717453 -3.3147883 -1.1788768 33
-4.039855 -2.6785097 -0.90403044 52
-5.3420215 -2.3848557 -1.7934585 9
-6.2802153 -3.9349363 -1.759919 9
-4.4488382 -2.0280378 -1.8466766 11
-3.4980116 -2.3851497 -1.8949734 12
-2.747488 -1.3499309 -1.9174922 15
-2.990274 -2.1032307 -1.9337205 18
-2.3609369 -1.1939538 -1.9334018 12
-1.8910954 -1.495571 -1.9756302 18
-1.7613792 -0.95436317 -1.963936 17
-1.4141319 -1.2337625 -2.0193861 23
-1.3264215 -0.77792645 -2.0029418 22
-1.0964291 -1.0605011 -2.1370308 13
-0.45253694 -0.44499961 -1.4129145 9
nan nan nan 0
nan nan nan 0
-32.343674 -18.59094 10.491199 23
-7.3609085 -3.1813247 2.0978553 27
-32.65678 -18.704161 7.7435517 38
-7.3908358 -3.1936388 1.4514213 31
-32.786716 -18.730211 5.0419002 38
-7.4111834 -3.2010581 0.9209367 31
-32.881714 -18.756054 3.030988 16
-7.4304848 -3.2052093 0.49399501 36
-32.983524 -18.786959 1.2491972 32
-7.4628057 -3.2145309 0.086007431 36
-33.019764 -18.781254 -0.54256886 31
-7.4843683 -3.2196264 -0.32430568 35
nan nan nan 0
-7.4945154 -3.2186658 -0.71996188 34
-3.9904542 -2.6310644 -0.57588029 43
-7.6670942 -3.2791209 -1.1764867 37
-4.03793 -2.6566553 -0.90189284 47
-5.3525558 -2.3645127 -1.7940359 9
-6.2761493 -3.902174 -1.7554965 9
-4.4555349 -2.0108519 -1.8466064 11
-3.5022449 -2.3681104 -1.8930626 13
-2.7563298 -1.3393676 -1.919737 16
-2.9952409 -2.0897737 -1.9326135 18
-2.3689117 -1.1852278 -1.9358898 12
-1.8981197 -1.4874396 -1.9769505 19
-1.7665765 -0.94636852 -1.9653893 17
-1.4217846 -1.2281799 -2.022517 23
-1.3256688 -0.76947135 -1.9995328 22
-1.0953788 -1.0518413 -2.1316373 14
nan nan nan 0
nan nan nan 0
nan nan nan 0
-32.583054 -18.572281 10.547205 32
-7.3538399 -3.1458874 2.0932722 27
-32.876083 -18.672817 7.7799492 36
-7.3743458 -3.1544473 1.446607 28
-33.001492 -18.695736 5.0650535 37
-7.4060812 -3.1662247 0.91921806 32
-33.108364 -18.727716 3.0462027 16
-7.429985 -3.1721087 0.49340746 37
-33.209637 -18.75012 1.2557433 32
-7.4506626 -3.1768172 0.085880272 35
-33.249268 -18.753851 -0.54451764 32
-7.4751387 -3.1813323 -0.32335413 35
-9.8063202 -5.8176703 -0.72097868 162
-7.4876604 -3.1812792 -0.71821046 34
-4.0257344 -2.6289201 -0.57897472 35
-7.6553564 -3.2408519 -1.1731259 33
-4.0346727 -2.6319866 -0.89933759 43
-5.3585215 -2.3424008 -1.7932856 9
-6.2690153 -3.8646796 -1.7499894 10
-4.4562221 -1.9892943 -1.84416 11
-3.5125222 -2.3544493 -1.8938882 13
-2.7609835 -1.3271908 -1.9196882 16
-3.0008841 -2.0750048 -1.9314995 17
-2.3732347 -1.1738633 -1.9358445 11
-1.9069414 -1.4802953 -1.9796464 20
-1.7587266 -0.93302405 -1.9564248 17
-1.4226925 -1.2187725 -2.0192964 22
-1.326745 -0.7613039 -1.9978129 22
-1.0992215 -1.0451528 -2.1315973 15
-1.0130682 -0.63678974 -2.0838771 15
nan nan nan 0
nan nan nan 0
-32.796421 -18.529984 10.593913 35
-7.3403587 -3.1065104 2.0869303 26
-33.11816 -18.644882 7.820848 36
-7.3674326 -3.117527 1.4434401 30
-33.250111 -18.670755 5.0928025 36
-7.3990622 -3.1291513 0.91724139 33
-33.375618 -18.712437 3.0647926 16
-7.4252415 -3.1358359 0.49254254 37
-33.441437 -18.722643 1.2625811 32
-7.4412394 -3.1386926 0.085781582 34
-33.510773 -18.734692 -0.54688561 32
-7.4651918 -3.1445827 -0.32241014 35
-9.7969151 -5.7622132 -0.71865994 255
-7.4731092 -3.1427541 -0.71585596 34
-4.0527892 -2.6209557 -0.58100069 26
-7.6370659 -3.1985943 -1.1687883 32
-4.0762987 -2.6330352 -0.90537512 28
-5.3580499 -2.3166509 -1.7905389 10
-6.284606 -3.8413916 -1.7503844 9
-4.4609151 -1.9703394 -1.8432976 11
-3.5211229 -2.3388841 -1.8937981 14
-2.7637432 -1.3136114 -1.9184908 17
-3.0100987 -2.0630662 -1.9324579 17
-2.3712475 -1.1607749 -1.9320079 11
-1.9050419 -1.466579 -1.9740899 19
-1.763854 -0.92502517 -1.9578788 17
-1.4271448 -1.210879 -2.0192499 22
-1.3345866 -0.75600052 -2.0028563 23
-1.0952325 -1.0344805 -2.1226315 15
-1.0168391 -0.63126224 -2.0857284 13
nan nan nan 0
nan nan nan 0
-33.025715 -18.502697 10.646591 36
-7.3352509 -3.0721385 2.082931 26
-33.374428 -18.630781 7.865684 32
-7.3713484 -3.0864952 1.4423208 30
-33.482677 -18.643074 5.1185656 34
-7.3913403 -3.0935948 0.91525745 34
-33.613693 -18.687172 3.0809948 16
-7.4104652 -3.0975263 0.49110669 36
-33.691021 -18.703316 1.2700692 32
-7.4311056 -3.1021078 0.085675456 35
-33.747349 -18.707973 -0.54893446 33
-7.4597626 -3.1097102 -0.32165173 36
-9.8038006 -5.718255 -0.71755183 255
-7.4630499 -3.1061313 -0.71391022 35
-9.6047583 -5.6072202 -1.2548976 118
-7.6365824 -3.1649697 -1.1670516 32
-8.2059288 -4.8479691 -1.6821028 7
-5.3683562 -2.2962279 -1.791119 10
-6.2829428 -3.8087337 -1.7464949 10
-4.4722037 -1.9538666 -1.8448055 11
-3.5251708 -2.3218067 -1.891889 14
-2.766223 -1.3006395 -1.9172959 17
-3.0152786 -2.0489109 -1.9313488 16
-2.383378 -1.1529164 -1.9370241 11
-1.9138057 -1.4593847 -1.9767863 19
-1.7689557 -0.9170019 -1.9593333 18
-1.4262886 -1.2005421 -2.0144427 23
-1.3372126 -0.74879301 -2.0028288 22
-1.1003605 -1.0289636 -2.1243792 15
-1.0252751 -0.62736255 -2.0932024 12
nan nan nan 0
nan nan nan 0
-33.25523 -18.474026 10.699269 40
-7.3254509 -3.0361314 2.0777552 27
-33.611626 -18.604612 7.9060574 31
-7.3543701 -3.0476675 1.4375013 30
-33.73946 -18.626949 5.1479154 36
-7.3788157 -3.0563815 0.91274738 33
-33.867352 -18.668747 3.0985746 13
-7.4113445 -3.0669234 0.49065006 37
-33.916683 -18.669439 1.2766688 31
-7.4278393 -3.0682645 0.08564125 36
-33.9809 -18.685892 -0.55101502 31
-7.451849 -3.0740376 -0.32080287 36
-9.8149033 -5.676682 -0.71674502 255
-7.4598398 -3.0722356 -0.71257651 35
-9.6198874 -5.5687361 -1.2541618 122
-7.6284513 -3.1302471 -1.1643494 32
-8.216279 -4.8132405 -1.6806997 11
-5.3668985 -2.2726355 -1.7883828 9
-6.3155527 -3.7946303 -1.7511768 9
-4.4723182 -1.9332268 -1.8423649 11
-3.5369434 -2.3098938 -1.8936325 14
-2.7746892 -1.2905643 -1.9195447 18
-3.0244095 -2.0369086 -1.9323081 17
-2.3873835 -1.1420434 -1.9369823 11
-1.9167962 -1.4496135 -1.975361 20
-1.7719829 -0.90871215 -1.9593016 18
-1.4285648 -1.1924598 -2.0128133 22
-1.3431573 -0.74316555 -2.0061839 22
-1.0962853 -1.0183399 -2.1154146 16
-1.0273458 -0.62154508 -2.0931807 11
nan nan nan 0
nan nan nan 0
-33.496574 -18.457975 10.756583 39
-7.3172541 -3.0024886 2.0731597 27
-33.873859 -18.598137 7.9528499 29
-7.3459425 -3.0138493 1.4343189 30
-33.984558 -18.610649 5.17593 39
-7.3679323 -3.0215783 0.91049242 33
-34.113651 -18.652517 3.1157308 13
-7.4009418 -3.0305765 0.48949295 36
-34.176739 -18.660322 1.2846148 32
-7.4168739 -3.0332992 0.085526422 36
-34.255424 -18.676369 -0.55365306 29
-7.4479437 -3.0416243 -0.32014501 36
-9.8204575 -5.6345968 -0.71565092 108
-7.4466133 -3.0363703 -0.71043605 35
-9.6185532 -5.52384 -1.2515779 119
-7.6183987 -3.0932965 -1.1613194 32
-8.2256613 -4.7800612 -1.6793067 11
-5.3815808 -2.2538283 -1.7902925 9
-6.3130136 -3.7631991 -1.7472962 9
-4.4787002 -1.9159633 -1.8422982 11
-3.5470324 -2.2960837 -1.89446 13
-2.7749946 -1.2768135 -1.917204 17
-3.025125 -2.0212219 -1.9291354 15
-2.3891237 -1.1309716 -1.9356782 11
-1.9236774 -1.441361 -1.9766829 20
-1.7751393 -0.8999753 -1.9592686 18
-1.4378023 -1.1876918 -2.0175331 23
-1.340523 -0.73410416 -2.0010858 22
-1.0965846 -1.0106012 -2.1118083 16
-1.015424 -0.61056978 -2.0762901 11
nan nan nan 0
nan nan nan 0
-33.745663 -18.436752 10.815268 44
-7.3162823 -2.9700408 2.0703313 29
-34.113731 -18.570196 7.9937253 22
-7.3425274 -2.9804103 1.4319623 30
-34.22879 -18.584482 5.2033305 34
-7.3620968 -2.9871817 0.90876609 32
-34.356869 -18.625219 3.1323335 16
-7.3974133 -2.996923 0.48875719 36
-34.419327 -18.624533 1.2917397 30
-7.415678 -3.0004635 0.085513897 35
-34.567863 -18.685032 -0.55688047 18
-7.4308863 -3.0012527 -0.31892604 35
-9.8135862 -5.583693 -0.71365088 39
-7.4413061 -3.0003419 -0.70889628 34
-9.6289797 -5.4830136 -1.250314 124
-7.598877 -3.05305 -1.1569948 32
-8.2234917 -4.7368307 -1.6754454 11
-5.3826146 -2.2300096 -1.7882181 9
-6.328917 -3.7384956 -1.7476878 9
-4.4879174 -1.897665 -1.8430148 11
-3.548852 -2.2778676 -1.891641 13
-2.7752461 -1.2630761 -1.9148638 16
-3.0304978 -2.0063784 -1.9280242 14
-2.3871515 -1.1173671 -1.9318414 12
-1.9231706 -1.4291335 -1.9725058 20
-1.7765257 -0.89012432 -1.9577461 18
-1.4385362 -1.178287 -2.0143144 23
-1.3449402 -0.72711593 -2.002748 22
-1.0925908 -0.99972409 -2.102843 17
-1.0145172 -0.60310996 -2.0725183 11
nan nan nan 0
nan nan nan 0
-33.974804 -18.395521 10.866653 32
-7.3088417 -2.9337335 2.0657437 30
-34.36356 -18.538095 8.0361261 18
-7.334857 -2.9439313 1.4287876 28
-34.487465 -18.556454 5.2323966 32
-7.3542986 -2.9505963 0.90678126 33
-34.612389 -18.594917 3.1497598 13
-7.3801908 -2.956794 0.48717922 37
-34.678799 -18.603853 1.2995636 31
-7.4054718 -2.9628358 0.085407011 35
-34.779999 -18.630955 -0.55843079 34
-7.4319181 -2.9692843 -0.31844941 36
-9.8185081 -5.5368581 -0.71239072 36
-7.4376726 -2.9666691 -0.70756692 35
-9.6401958 -5.440372 -1.2490419 122
-7.593689 -3.0165801 -1.1546104 31
-8.2334156 -4.7021084 -1.6740468 12
-5.3930144 -2.2084017 -1.788797 9
-6.3462491 -3.7160954 -1.7486227 9
-4.4922762 -1.8786387 -1.8421559 10
-3.5633516 -2.26542 -1.8942891 13
-2.7777579 -1.249481 -1.9136691 16
-3.0374784 -1.9932411 -1.9279511 16
-2.3971367 -1.1086259 -1.9355943 12
-1.933923 -1.4223409 -1.9765755 20
-1.7815149 -0.88203079 -1.9592018 18
-1.4445426 -1.1712468 -2.015857 22
-1.3457229 -0.71927679 -2.0010312 22
-1.0945295 -0.99253196 -2.1010213 15
-1.0072019 -0.59385997 -2.0612514 10
nan nan nan 0
nan nan nan 0
-34.217972 -18.367933 10.923342 32
-7.3053169 -2.9005756 2.0623248 33
-34.642952 -18.527637 8.0859404 16
-7.3334818 -2.9114661 1.4268391 32
-34.734375 -18.528387 5.260128 32
-7.3434935 -2.9146817 0.90452713 32
-34.864914 -18.569208 3.1671541 13
-7.3787174 -2.9241588 0.48658147 37
-34.92746 -18.575815 1.3069842 29
-7.3945885 -2.9267454 0.085293032 34
-35.008938 -18.592188 -0.56032753 34
-7.4210691 -2.9331284 -0.31751484 36
-9.8156271 -5.4884529 -0.71069437 33
-7.4268646 -2.9305375 -0.70562899 35
-9.6480942 -5.3983884 -1.2475159 121
-7.5901623 -2.9824758 -1.1525571 32
-8.2519617 -4.6719217 -1.6742842 11
-5.3916016 -2.1837852 -1.7860605 9
-6.3505092 -3.6868634 -1.7463454 9
-4.4943295 -1.8588136 -1.8405081 10
-3.5629768 -2.2461145 -1.8905598 14
-2.7883887 -1.2394288 -1.9170637 17
-3.0383604 -1.9769164 -1.9247766 14
-2.3989496 -1.096997 -1.9342893 13
-1.9333286 -1.4101171 -1.9723995 19
-1.7864785 -0.87391341 -1.9606574 18
-1.4469116 -1.162748 -2.0142267 22
-1.3482208 -0.71203053 -2.0010052 22
-1.0918117 -0.98286021 -2.0938437 14
-1.0124043 -0.58884174 -2.0649779 10
nan nan nan 0
nan nan nan 0
-34.463509 -18.339983 10.9807 32
-7.299366 -2.8666635 2.0583167 34
-34.907475 -18.507551 8.1322842 16
-7.3226871 -2.8757391 1.4232451 34
-35.010132 -18.513636 5.2920995 38
-7.3419075 -2.8822129 0.90332103 33
-35.14204 -18.554552 3.1867154 16
-7.3719082 -2.8913162 0.48569489 37
-35.194118 -18.555441 1.3150575 34
-7.3859081 -2.891603 0.085202135 34
-35.276997 -18.580103 -0.56291699 31
-7.4147758 -2.8987546 -0.31676546 36
-9.8236284 -5.4458508 -0.70974725 38
-7.4182549 -2.8953497 -0.70389611 34
-9.6469841 -5.3518634 -1.2449297 120
-7.5836458 -2.9490595 -1.1501867 32
-8.2682133 -4.640533 -1.674114 11
-5.4010825 -2.164269 -1.786649 9
-6.3633347 -3.6621206 -1.7462111 9
-4.5030241 -1.8413484 -1.8412303 10
-3.5724692 -2.2329359 -1.8913937 13
-2.786181 -1.2255774 -1.9135809 15
-3.0472591 -1.964799 -1.9257386 14
-2.3986804 -1.084668 -1.9317206 13
-1.9361391 -1.4003133 -1.9709762 20
-1.7855582 -0.86427331 -1.9576515 18
-1.4456286 -1.1528275 -2.009424 22
-1.3453295 -0.7033866 -1.9959093 21
-1.0905942 -0.97403967 -2.0884523 18
-1.0049163 -0.57996643 -2.0537131 9
nan nan nan 0
nan nan nan 0
-34.725334 -18.326696 11.044031 34
-7.2950745 -2.8350427 2.0548897 35
-35.160347 -18.487635 8.1766109 16
-7.3065929 -2.8398941 1.4188217 33
-35.2411 -18.48197 5.3178458 32
-7.3303146 -2.8479011 0.90105861 31
-35.398521 -18.535406 3.2046719 18
-7.3607578 -2.8554769 0.48452994 36
-35.453384 -18.53747 1.3229374 31
-7.3742256 -2.8571475 0.085079789 32
-35.504105 -18.537346 -0.56477493 32
-7.3984118 -2.8625736 -0.31565571 31
-9.8216305 -5.4005623 -0.70821428 71
-7.4066467 -2.8608563 -0.70196652 29
-9.651391 -5.3106165 -1.2431515 122
-7.5775089 -2.914268 -1.1478122 32
-8.2857485 -4.611784 -1.6743617 11
-5.3972158 -2.1388948 -1.78325 10
-6.3623924 -3.6319063 -1.7428719 9
-4.5091014 -1.8239833 -1.8411666 10
-3.5740232 -2.2147169 -1.8885775 14
-2.7925386 -1.2140155 -1.9146827 16
-3.0578022 -1.9543447 -1.9277382 17
-2.3981762 -1.0728999 -1.9291543 13
-1.9447188 -1.392922 -1.9736743 20
-1.7866547 -0.85484964 -1.9561324 18
-1.4513514 -1.1461241 -2.0109696 22
-1.3530188 -0.69787538 -2.0009549 22
-1.0845237 -0.96310925 -2.0777066 22
-1.0069301 -0.5739125 -2.0536919 9
nan nan nan 0
nan nan nan 0
-34.975647 -18.297924 11.102728 34
-7.2865629 -2.8004775 2.0502913 34
-35.427616 -18.465488 8.2234564 18
-7.2978258 -2.8052154 1.4156353 34
-35.508602 -18.459507 5.3485198 32
-7.3167267 -2.8114705 0.89853734 29
-35.651829 -18.505009 3.2220747 16
-7.3541737 -2.8213911 0.48364571 36
-35.719395 -18.505251 1.3308877 31
-7.3747044 -2.8254876 0.085084803 34
-35.773705 -18.514708 -0.56729037 32
-7.3946857 -2.8277898 -0.31499594 36
-9.8359642 -5.3613997 -0.70771879 174
-7.4076576 -2.827708 -0.70104438 33
-9.6543398 -5.2664628 -1.2411 120
-7.5665455 -2.8779347 -1.1447917 31
-8.3025904 -4.5787015 -1.6741854 11
-5.4092035 -2.1190569 -1.7845004 9
-6.3756552 -3.6058819 -1.742733 9
-4.5157514 -1.8047674 -1.841097 10
-3.5858774 -2.2017899 -1.8903199 13
-2.8009639 -1.2031361 -1.9169321 17
-3.0669675 -1.9414833 -1.9286972 17
-2.410265 -1.0641756 -1.9341708 13
-1.9458497 -1.3816717 -1.9708745 20
-1.7954915 -0.84752047 -1.9605629 17
-1.4570534 -1.1393946 -2.0125151 22
-1.3538117 -0.68966848 -1.9992381 22
-1.0833873 -0.95402884 -2.0723143 20
-1.0074464 -0.56704289 -2.0517957 10
nan nan nan 0
nan nan nan 0
-35.237972 -18.265688 11.16413 33
-7.2829857 -2.7661829 2.0468714 34
-35.674328 -18.423153 8.2648764 23
-7.2987261 -2.7724373 1.4140978 33
-35.792877 -18.435715 5.381187 29
-7.31287 -2.7769988 0.89706969 29
